2.65599 0.5 0.5 2 2 2
2.63794 0.493952 0.493952 2 2 2
2.62893 0.490937 0.490937 2 2 2
2.61991 0.487929 0.487929 2 2 2
2.6109 0.484926 0.484926 2 2 2
2.6019 0.481929 0.481929 2 2 2
2.5929 0.478939 0.478939 2 2 2
2.58391 0.475954 0.475954 2 2 2
2.57493 0.472976 0.472976 2 2 2
2.56595 0.470005 0.470005 2 2 2
2.55697 0.467039 0.467039 2 2 2
2.548 0.46408 0.46408 2 2 2
2.53904 0.461127 0.461127 2 2 2
2.53008 0.458181 0.458181 2 2 2
2.52113 0.455241 0.455241 2 2 2
2.51219 0.452308 0.452308 2 2 2
2.50325 0.449382 0.449382 2 2 2
2.49432 0.446462 0.446462 2 2 2
2.4854 0.443549 0.443549 2 2 2
2.47648 0.440642 0.440642 2 2 2
2.46758 0.437742 0.437742 2 2 2
2.45867 0.434849 0.434849 2 2 2
2.44978 0.431963 0.431963 2 2 2
2.4409 0.429084 0.429084 2 2 2
2.43202 0.426212 0.426212 2 2 2
2.42315 0.423347 0.423347 2 2 2
2.41429 0.420489 0.420489 2 2 2
2.40543 0.417638 0.417638 2 2 2
2.39659 0.414795 0.414795 2 2 2
2.38776 0.411959 0.411959 2 2 2
2.37893 0.40913 0.40913 2 2 2
2.37011 0.406308 0.406308 2 2 2
2.36131 0.403494 0.403494 2 2 2
2.35251 0.400687 0.400687 2 2 2
2.34372 0.397888 0.397888 2 2 2
2.33495 0.395097 0.395097 2 2 2
2.32618 0.392313 0.392313 2 2 2
2.31743 0.389538 0.389538 2 2 2
2.30868 0.38677 0.38677 2 2 2
2.29995 0.38401 0.38401 2 2 2
2.29123 0.381257 0.381257 2 2 2
2.28252 0.378513 0.378513 2 2 2
2.27382 0.375778 0.375778 2 2 2
2.26514 0.37305 0.37305 2 2 2
2.25646 0.370331 0.370331 2 2 2
2.24781 0.36762 0.36762 2 2 2
2.23916 0.364917 0.364917 2 2 2
2.23053 0.362223 0.362223 2 2 2
2.22191 0.359538 0.359538 2 2 2
2.2133 0.356862 0.356862 2 2 2
2.20471 0.354194 0.354194 2 2 2
2.19614 0.351535 0.351535 2 2 2
2.18758 0.348885 0.348885 2 2 2
2.17904 0.346244 0.346244 2 2 2
2.17051 0.343613 0.343613 2 2 2
2.162 0.34099 0.34099 2 2 2
2.1535 0.338378 0.338378 2 2 2
2.14502 0.335774 0.335774 2 2 2
2.13657 0.33318 0.33318 2 2 2
2.12812 0.330596 0.330596 2 2 2
2.1197 0.328022 0.328022 2 2 2
2.1113 0.325458 0.325458 2 2 2
2.10291 0.322903 0.322903 2 2 2
2.09455 0.320359 0.320359 2 2 2
2.0862 0.317825 0.317825 2 2 2
2.07788 0.315302 0.315302 2 2 2
2.06958 0.312789 0.312789 2 2 2
2.0613 0.310287 0.310287 2 2 2
2.05304 0.307795 0.307795 2 2 2
2.04481 0.305315 0.305315 2 2 2
2.0366 0.302846 0.302846 2 2 2
2.02842 0.300387 0.300387 2 2 2
2.02026 0.297941 0.297941 2 2 2
2.01212 0.295506 0.295506 2 2 2
2.00401 0.293082 0.293082 2 2 2
1.99593 0.290671 0.290671 2 2 2
2.0 0.291858865583 0.291858865583 2 2 2
1.88888888889 0.259430102749 0.259430102749 2 2 2
1.77777777778 0.227001339916 0.227001339916 2 2 2
1.66666666667 0.194572577083 0.194572577083 2 2 2
1.55555555556 0.162143814249 0.162143814249 2 2 2
1.44444444444 0.129715051416 0.129715051416 2 2 2
1.33333333333 0.0972862885826 0.0972862885826 2 2 2
1.22222222222 0.0648575257493 0.0648575257493 2 2 2
1.11111111111 0.0324287629159 0.0324287629159 2 2 2
1.0 8.25849943986e-11 8.25849943986e-11 2 2 2
2.65599 0.290671 0.290671 2 3 2
2.65599 0.290671 0.290671 2 3 2
2.65599 0.290671 0.290671 2 3 2
2.65599 0.290671 0.290671 2 3 2
2.65599 0.290671 0.290671 2 3 2
2.65599 0.5 0.5 2 3 2
2.67406 0.506071 0.506071 2 3 2
2.68311 0.509116 0.509116 2 3 2
2.69215 0.512166 0.512166 2 3 2
2.7012 0.515222 0.515222 2 3 2
2.71026 0.518284 0.518284 2 3 2
2.71931 0.521352 0.521352 2 3 2
2.72838 0.524425 0.524425 2 3 2
2.73744 0.527504 0.527504 2 3 2
2.74651 0.530589 0.530589 2 3 2
2.75559 0.533679 0.533679 2 3 2
2.76467 0.536774 0.536774 2 3 2
2.77375 0.539876 0.539876 2 3 2
2.78283 0.542982 0.542982 2 3 2
2.79192 0.546094 0.546094 2 3 2
2.80101 0.549212 0.549212 2 3 2
2.81011 0.552335 0.552335 2 3 2
2.8192 0.555463 0.555463 2 3 2
2.82831 0.558597 0.558597 2 3 2
2.83741 0.561736 0.561736 2 3 2
2.84652 0.564881 0.564881 2 3 2
2.85563 0.56803 0.56803 2 3 2
2.86474 0.571185 0.571185 2 3 2
2.87386 0.574345 0.574345 2 3 2
2.88297 0.57751 0.57751 2 3 2
2.8921 0.580681 0.580681 2 3 2
2.90122 0.583856 0.583856 2 3 2
2.91035 0.587037 0.587037 2 3 2
2.91947 0.590223 0.590223 2 3 2
2.92861 0.593413 0.593413 2 3 2
2.93774 0.596609 0.596609 2 3 2
2.94688 0.59981 0.59981 2 3 2
2.95601 0.603016 0.603016 2 3 2
2.96515 0.606226 0.606226 2 3 2
2.9743 0.609442 0.609442 2 3 2
2.98344 0.612663 0.612663 2 3 2
2.99259 0.615888 0.615888 2 3 2
3.00174 0.619119 0.619119 2 3 2
3.01089 0.622354 0.622354 2 3 2
3.02004 0.625594 0.625594 2 3 2
3.0292 0.628839 0.628839 2 3 2
3.03835 0.632088 0.632088 2 3 2
3.04751 0.635343 0.635343 2 3 2
3.05667 0.638602 0.638602 2 3 2
3.06583 0.641865 0.641865 2 3 2
3.075 0.645134 0.645134 2 3 2
3.08416 0.648407 0.648407 2 3 2
3.09333 0.651685 0.651685 2 3 2
3.1025 0.654967 0.654967 2 3 2
3.11167 0.658255 0.658255 2 3 2
3.12084 0.661546 0.661546 2 3 2
3.13001 0.664843 0.664843 2 3 2
3.13918 0.668143 0.668143 2 3 2
3.14836 0.671449 0.671449 2 3 2
3.15753 0.674759 0.674759 2 3 2
3.16671 0.678073 0.678073 2 3 2
3.17589 0.681392 0.681392 2 3 2
3.18507 0.684715 0.684715 2 3 2
3.19425 0.688043 0.688043 2 3 2
3.20344 0.691375 0.691375 2 3 2
3.21262 0.694712 0.694712 2 3 2
3.2218 0.698053 0.698053 2 3 2
3.23099 0.701398 0.701398 2 3 2
3.24018 0.704748 0.704748 2 3 2
3.24936 0.708102 0.708102 2 3 2
3.25855 0.711461 0.711461 2 3 2
3.26774 0.714824 0.714824 2 3 2
3.27693 0.718191 0.718191 2 3 2
3.28612 0.721562 0.721562 2 3 2
3.29532 0.724938 0.724938 2 3 2
3.30451 0.728317 0.728317 2 3 2
3.3137 0.731701 0.731701 2 3 2
3.3229 0.73509 0.73509 2 3 2
3.33209 0.738482 0.738482 2 3 2
3.34129 0.741879 0.741879 2 3 2
3.35049 0.74528 0.74528 2 3 2
3.35968 0.748685 0.748685 2 3 2
3.36888 0.752094 0.752094 2 3 2
3.37808 0.755507 0.755507 2 3 2
3.38728 0.758925 0.758925 2 3 2
3.39648 0.762346 0.762346 2 3 2
3.40568 0.765772 0.765772 2 3 2
3.41488 0.769202 0.769202 2 3 2
3.42408 0.772635 0.772635 2 3 2
3.43329 0.776073 0.776073 2 3 2
3.44249 0.779515 0.779515 2 3 2
3.45169 0.782961 0.782961 2 3 2
3.46089 0.78641 0.78641 2 3 2
3.4701 0.789864 0.789864 2 3 2
3.4793 0.793322 0.793322 2 3 2
3.48851 0.796784 0.796784 2 3 2
3.49771 0.80025 0.80025 2 3 2
3.50692 0.803719 0.803719 2 3 2
3.51612 0.807193 0.807193 2 3 2
3.52533 0.81067 0.81067 2 3 2
3.53454 0.814152 0.814152 2 3 2
3.54374 0.817637 0.817637 2 3 2
3.55295 0.821126 0.821126 2 3 2
3.56215 0.824619 0.824619 2 3 2
3.57136 0.828116 0.828116 2 3 2
3.58057 0.831617 0.831617 2 3 2
3.58978 0.835121 0.835121 2 3 2
3.59898 0.83863 0.83863 2 3 2
3.60819 0.842142 0.842142 2 3 2
3.6174 0.845658 0.845658 2 3 2
3.62661 0.849178 0.849178 2 3 2
3.63582 0.852701 0.852701 2 3 2
3.64502 0.856229 0.856229 2 3 2
3.65423 0.85976 0.85976 2 3 2
3.66344 0.863295 0.863295 2 3 2
3.67265 0.866833 0.866833 2 3 2
3.68186 0.870375 0.870375 2 3 2
3.69107 0.873921 0.873921 2 3 2
3.70027 0.877471 0.877471 2 3 2
3.70948 0.881024 0.881024 2 3 2
3.71869 0.884582 0.884582 2 3 2
3.7279 0.888142 0.888142 2 3 2
3.73711 0.891707 0.891707 2 3 2
3.74632 0.895275 0.895275 2 3 2
3.75552 0.898846 0.898846 2 3 2
3.76473 0.902422 0.902422 2 3 2
3.77394 0.906001 0.906001 2 3 2
3.78315 0.909583 0.909583 2 3 2
3.79236 0.913169 0.913169 2 3 2
3.80156 0.916759 0.916759 2 3 2
3.81077 0.920352 0.920352 2 3 2
3.81998 0.923949 0.923949 2 3 2
3.82919 0.92755 0.92755 2 3 2
3.83839 0.931154 0.931154 2 3 2
3.8476 0.934762 0.934762 2 3 2
3.85681 0.938373 0.938373 2 3 2
3.86601 0.941987 0.941987 2 3 2
3.87522 0.945606 0.945606 2 3 2
3.88442 0.949227 0.949227 2 3 2
3.89363 0.952852 0.952852 2 3 2
3.90284 0.956481 0.956481 2 3 2
3.91204 0.960113 0.960113 2 3 2
3.92125 0.963749 0.963749 2 3 2
3.93045 0.967388 0.967388 2 3 2
3.93965 0.971031 0.971031 2 3 2
3.94886 0.974677 0.974677 2 3 2
3.95806 0.978327 0.978327 2 3 2
3.96727 0.981979 0.981979 2 3 2
3.97647 0.985636 0.985636 2 3 2
3.98567 0.989296 0.989296 2 3 2
3.99487 0.992959 0.992959 2 3 2
4.00408 0.996626 0.996626 2 3 2
4.01328 1.0003 1.0003 2 3 2
4.02248 1.00397 1.00397 2 3 2
4.03168 1.00765 1.00765 2 3 2
4.04088 1.01133 1.01133 2 3 2
4.05008 1.01501 1.01501 2 3 2
4.05928 1.0187 1.0187 2 3 2
4.06848 1.02239 1.02239 2 3 2
4.07768 1.02608 1.02608 2 3 2
4.08688 1.02978 1.02978 2 3 2
4.09607 1.03348 1.03348 2 3 2
4.10527 1.03718 1.03718 2 3 2
4.11447 1.04089 1.04089 2 3 2
4.12366 1.0446 1.0446 2 3 2
4.13286 1.04831 1.04831 2 3 2
4.14206 1.05203 1.05203 2 3 2
4.15125 1.05575 1.05575 2 3 2
4.16045 1.05947 1.05947 2 3 2
4.16964 1.0632 1.0632 2 3 2
4.17883 1.06693 1.06693 2 3 2
4.18803 1.07066 1.07066 2 3 2
4.19722 1.0744 1.0744 2 3 2
4.20641 1.07814 1.07814 2 3 2
4.2156 1.08188 1.08188 2 3 2
4.2248 1.08563 1.08563 2 3 2
4.23399 1.08938 1.08938 2 3 2
4.24318 1.09313 1.09313 2 3 2
4.25237 1.09689 1.09689 2 3 2
4.26155 1.10065 1.10065 2 3 2
4.27074 1.10441 1.10441 2 3 2
4.27993 1.10818 1.10818 2 3 2
4.28912 1.11195 1.11195 2 3 2
4.2983 1.11572 1.11572 2 3 2
4.30749 1.1195 1.1195 2 3 2
4.31667 1.12327 1.12327 2 3 2
4.32586 1.12706 1.12706 2 3 2
4.33504 1.13084 1.13084 2 3 2
4.34423 1.13463 1.13463 2 3 2
4.35341 1.13842 1.13842 2 3 2
4.36259 1.14222 1.14222 2 3 2
4.37177 1.14601 1.14601 2 3 2
4.38095 1.14981 1.14981 2 3 2
4.39013 1.15362 1.15362 2 3 2
4.39931 1.15743 1.15743 2 3 2
4.40849 1.16124 1.16124 2 3 2
4.41767 1.16505 1.16505 2 3 2
4.42685 1.16887 1.16887 2 3 2
4.43603 1.17269 1.17269 2 3 2
4.4452 1.17651 1.17651 2 3 2
4.45438 1.18034 1.18034 2 3 2
4.46355 1.18417 1.18417 2 3 2
4.47273 1.188 1.188 2 3 2
4.4819 1.19183 1.19183 2 3 2
4.49107 1.19567 1.19567 2 3 2
4.50024 1.19951 1.19951 2 3 2
4.50942 1.20336 1.20336 2 3 2
4.51859 1.20721 1.20721 2 3 2
4.52776 1.21106 1.21106 2 3 2
4.53692 1.21491 1.21491 2 3 2
4.54609 1.21877 1.21877 2 3 2
4.55526 1.22263 1.22263 2 3 2
4.56443 1.22649 1.22649 2 3 2
4.57359 1.23036 1.23036 2 3 2
4.58276 1.23423 1.23423 2 3 2
4.59192 1.2381 1.2381 2 3 2
4.60109 1.24198 1.24198 2 3 2
4.61025 1.24586 1.24586 2 3 2
4.61941 1.24974 1.24974 2 3 2
4.62857 1.25362 1.25362 2 3 2
4.63773 1.25751 1.25751 2 3 2
4.64689 1.2614 1.2614 2 3 2
4.65605 1.26529 1.26529 2 3 2
4.66521 1.26919 1.26919 2 3 2
4.67437 1.27309 1.27309 2 3 2
4.68352 1.27699 1.27699 2 3 2
4.69268 1.2809 1.2809 2 3 2
4.70183 1.28481 1.28481 2 3 2
4.71099 1.28872 1.28872 2 3 2
4.72014 1.29264 1.29264 2 3 2
4.72929 1.29656 1.29656 2 3 2
4.73844 1.30048 1.30048 2 3 2
4.74759 1.3044 1.3044 2 3 2
4.75674 1.30833 1.30833 2 3 2
4.76589 1.31226 1.31226 2 3 2
4.77504 1.31619 1.31619 2 3 2
4.78419 1.32013 1.32013 2 3 2
4.79333 1.32407 1.32407 2 3 2
4.80248 1.32801 1.32801 2 3 2
4.81162 1.33195 1.33195 2 3 2
4.82076 1.3359 1.3359 2 3 2
4.82991 1.33985 1.33985 2 3 2
4.83905 1.34381 1.34381 2 3 2
4.84819 1.34777 1.34777 2 3 2
4.85733 1.35173 1.35173 2 3 2
4.86647 1.35569 1.35569 2 3 2
4.8756 1.35966 1.35966 2 3 2
4.88474 1.36362 1.36362 2 3 2
4.89388 1.3676 1.3676 2 3 2
4.90301 1.37157 1.37157 2 3 2
4.91215 1.37555 1.37555 2 3 2
4.92128 1.37953 1.37953 2 3 2
4.93041 1.38351 1.38351 2 3 2
4.93954 1.3875 1.3875 2 3 2
4.94867 1.39149 1.39149 2 3 2
4.9578 1.39548 1.39548 2 3 2
4.96693 1.39948 1.39948 2 3 2
4.97606 1.40348 1.40348 2 3 2
4.98518 1.40748 1.40748 2 3 2
4.99431 1.41149 1.41149 2 3 2
5.00343 1.41549 1.41549 2 3 2
